# 3D point list with one line of data per point:
#   POINT3D_ID, X, Y, Z, R, G, B, ERROR, TRACK[] as (IMAGE_ID, POINT2D_IDX)
# Number of points: 378, mean track length: 5.3041528239202655
2197 -5.336297053209166 2.7231327130687815 8.3441531359941088 145 145 145 0.28321077738239997 11 1068 3 528 15 727 5 439 18 687 12 856 4 711 7 576 16 635 17 626 10 456
2200 18.539270262643715 0.37233520663419312 60.601547866711961 168 168 168 0.9026735801630803 11 1098 3 564 2 462 4 940
2921 1.1628626886434879 28.181358942015368 29.108598752794354 202 202 202 0.62544715309523735 14 1322 15 1048 3 1256
2201 25.181015419901033 1.3974715395020814 60.926304090138039 192 192 192 0.45388865279286916 11 1090 3 577 4 951
2204 19.167907619601518 15.464750127682347 57.738609598708742 147 147 147 0.3598505782292461 11 1013 3 585 4 762
2207 1.6708503027181518 27.072751328119558 25.645039940580787 194 194 194 1.1811067588757911 14 1965 3 602 15 1075 5 1278 16 894
2208 1.9334996139890053 26.65854498888784 25.323021032363798 198 198 198 1.0262621435747277 14 816 3 603 15 1074 5 629 16 896 8 899
2865 10.417377261699977 22.475514148247882 53.057626399335952 119 119 119 1.0160131539975881 18 1274 15 686 5 875 12 623 2 646 4 1473 7 1242 8 469 16 513
2209 5.6281427107571851 27.15485775309201 26.294696888070273 201 201 201 0.80813327784227462 14 1350 3 605 15 685 5 620 16 682 8 900
3024 12.031605303046168 17.461086653067923 54.607437318453073 129 129 129 0.32357930839635446 18 1393 15 1560 12 1746
3382 -2.4180855881388701 6.9960300858995526 7.0014660206362569 21 21 21 0.58098993080862649 15 276 5 228
5424 -4.0974782368705167 4.9675018707945702 7.7174497519640468 174 174 174 0.28360974928106764 2 2685 3 2686 4 4030
2211 -2.9588526898129528 7.1574803840353205 7.3941156374006232 15 15 15 0.61022131784692801 14 331 7 213
4050 11.152957320128566 -7.3603464029255976 62.401300271288314 168 168 168 0.7939980142769163 11 614 12 454 2 515 4 576
2220 18.730756269013952 7.4880349126536903 58.736630861466658 55 55 55 0.31807818338127636 11 1052 3 741 4 977
2877 -3.3599626979250385 2.3223745427639617 9.1011338949404728 126 126 126 0.42417639343855024 11 1083 14 712 15 755 5 419 12 749 2 565 4 916 7 591 8 392 16 504 6 364 9 433 13 631 1 334 17 615 10 440
3551 11.004597456291311 3.9332203746419681 59.025654063864756 124 124 124 0.36216477800818703 3 2215 14 3145 5 1837 12 1971 2 1960
2224 8.7407851267696799 6.1060945202098926 21.751058260002743 83 83 83 0.96622400938307729 14 696 3 750 7 755 18 773
2817 -2.3953031098222692 2.4186080507298953 9.3522719180700662 191 191 191 0.41410898291766413 11 1078 18 590 15 493 5 364 3 443 12 751 2 459 7 487 8 346 16 474 13 340 10 338
2227 -3.2098148510829372 2.2794607517929406 9.1699162746744562 185 185 185 0.57589209172574474 11 1191 14 1001 3 769 15 820 5 524 12 1321 2 847 4 1262 7 700 8 532 16 913 6 362 9 434 13 629 1 365 17 613 10 437
2231 -1.1792280314876584 5.2558839651133615 5.0730117858648391 203 203 203 2.1540356819978639 11 4153 3 816
2825 16.974239513837382 23.309229724136824 53.876349147769979 115 115 115 0.4757711464227814 11 956 15 532 16 460
2234 4.7497804365200791 26.873153551603291 25.506982887223696 163 163 163 1.2733484967241449 14 1356 3 832 15 1606 5 1279 16 768 8 911
2236 -2.402281603571125 5.1686590018902319 8.0365153221320806 8 8 8 0.76371641080128361 11 2986 3 838
2829 9.7573010330305721 19.473171081633755 53.68992326699837 33 33 33 0.56862278597791072 18 497 15 541 5 447 12 562 2 531 7 525 8 454 16 450
2238 -3.1696691639260468 6.1713147049094035 7.5496229705956379 7 7 7 0.52496283786901243 14 1198 3 856 7 902 18 623
2242 13.990662142000819 2.3303607416670071 59.739591493518098 151 151 151 1.5569751251267034 11 1195 14 867 3 890 15 812 11 652 12 1311 2 782
5665 18.889249186602122 46.955905377998228 47.545372655599955 212 212 212 1.1952593057432845 3 1811 7 1918
5456 19.888400319208689 3.6181698149846557 60.052079266685837 171 171 171 1.5996458036825929 14 484 3 415 4 1308 11 1203 14 771 12 1318
2243 18.506271353887932 1.450712809277525 60.390714518004557 165 165 165 1.0567739511475858 11 1943 3 893 12 761
2259 17.048069376633272 10.238440182253829 58.609466412229636 83 83 83 0.17096176678308941 11 1271 3 982 4 1361
3637 9.9185953715635655 6.5650640453251787 58.520109472197397 70 70 70 0.56774483630485584 3 2846 14 2777 5 2206 12 2468 2 2952
2264 -5.3003626619014703 2.074067173346791 8.6044202539665076 199 199 199 0.5048359839769303 11 2530 3 1003 15 1521 5 1132 1 655 10 898
3646 -3.3378754270571203 2.3221298055929753 9.1504032020317005 128 128 128 0.97197479721031843 3 2331 5 2257 2 3106 4 3155 6 1731 10 1186
2265 19.062814681756063 11.530335035663166 58.829556162018093 155 155 155 0.46310184442393687 11 1304 3 1009 15 783 4 1373
3502 -5.3865710395202537 3.193861721559843 8.1281147145619563 188 188 188 0.75139200829467889 14 3521 5 1388 2 1616 7 1971 8 1557
2268 16.323012738266911 12.196196897458382 56.819708620470692 67 67 67 1.0425961143217319 11 1310 3 1018 12 702 2 732 4 1378
2989 9.9557631547726988 3.8791046531695375 58.562929040785356 117 117 117 0.34577111273891376 14 1638 15 1409 5 1684 12 1582 2 1599
2270 20.078602859086651 13.557270003682635 57.856117877198947 152 152 152 0.59394682971582557 11 2329 3 1038 4 1386
2271 -5.7431895340376657 3.3494882162075319 7.9865499537034728 163 163 163 0.39727600854035988 11 1255 3 1094 2 762
3500 14.751133790340596 18.965896798065671 56.051569053855381 141 141 141 1.7403295783507176 11 2344 5 1365 12 1718
3645 -3.9702257869562345 3.0922785512875244 8.6019831530485771 199 199 199 0.42490189310679599 3 3147 5 2253 2 3009 7 2298 9 1755
5488 -2.42423246780029 7.6905821670186425 6.3270624447046009 18 18 18 1.0314597005869106 18 285 7 145
2275 -5.3746573199690744 3.6888478778381892 7.9373312122645796 181 181 181 0.53624504162541498 11 2112 14 1106 3 1118 15 1895 5 879 12 1795 2 1003 4 1341 8 1170 16 1290 6 848 9 789 13 715 17 1023
2277 20.48862671195959 27.6161905432193 52.5330545503435 95 95 95 0.55814635104319177 11 1520 3 1146 4 1547 7 1320
3444 9.3957728462435224 10.306319962718613 56.906481401201674 153 153 153 0.81634882029081446 3 975 15 1180 5 788 12 960 2 1211
2280 -3.3850047827479939 3.1374605000383973 8.6153235274546329 12 12 12 1.6705019925616669 3 1178 7 1759
2937 11.154885906659882 3.8680626332012422 58.738529479092364 139 139 139 0.85523294571667896 14 1445 15 1140 3 905 12 1325 2 950
2941 8.9551868076767871 6.4006078644259592 58.013421781896085 56 56 56 0.99178322041853917 14 1471 15 1149 3 682 5 687 12 910 2 769
2287 9.4822085641916587 29.492265544464683 33.649428428420293 196 196 196 1.1129191509513767 14 2109 3 1206 15 985
2289 9.8831727805888843 28.665983692856816 30.998814955369337 173 173 173 0.80994590187693305 14 2008 3 1227 15 1020 5 1203 8 879 16 849
3398 -22.039376380067445 21.409658466143426 18.534771303522138 20 20 20 0.53807445182628011 15 350 5 329 16 338 8 321
2291 -2.8029094395384941 6.8743521925959659 7.121971039235266 29 29 29 0.076488140791551945 14 2027 3 1247
5498 8.9477790000031145 27.84199977810794 21.055127479468627 174 174 174 0.86581034574966786 18 224 8 252
2293 10.389177888212307 30.729161349302647 31.663530556806812 206 206 206 0.81104882382464649 14 1318 3 1250
2300 15.732631924993523 -0.41613382369664204 60.031920449576255 146 146 146 0.6705027497060515 11 1890 3 1282 12 1459 2 1462 4 1803
2893 9.9911297645282424 25.957198102895696 51.877977506217412 108 108 108 0.88666701997443631 11 1506 15 860 5 965 12 890 2 599 4 2116 7 1465 8 761
2304 11.250490903061207 0.84232631886119369 59.263888116244971 104 104 104 0.78198303878718045 11 1923 3 1316 12 1520
2305 28.449598046040446 -1.2112258954704107 61.859658772849045 190 190 190 0.81340735749379611 11 1878 3 1319 4 1797
2736 12.861475010312235 14.675392859237199 55.568782488231214 89 89 89 1.3866254534995435 18 123 15 83 5 112 12 65 2 115 16 89
2307 18.956041928479014 1.0680438288344434 60.492246852512523 157 157 157 0.75923906675266128 11 2525 3 1346 12 1515 2 1533
2308 27.315846760967538 0.042824440109807717 61.459239354733029 185 185 185 0.45491004068911872 11 3301 3 1347 4 1815
3255 -5.3325136170886722 3.116433768535066 8.179510486044304 179 179 179 0.80964986372155512 11 4012 14 3514 15 2564 3 2583 5 2846 2 2978 4 3807 7 2308 8 1927 16 2215 6 1568 13 1373 10 1138
2309 10.16522726785422 1.950259828927839 59.19810601627993 96 96 96 0.67650687913043217 11 2537 3 1349 12 1530 2 1555
2315 25.289996445312738 1.9607075658765629 58.859829555696365 171 171 171 1.1933251872952599 11 2542 3 1391 4 2583
3770 -5.212797289724187 2.779373155329028 8.3642416082417199 110 110 110 0.30065748586825575 3 3496 5 2777 7 2812 9 1716
5251 10.92642790315454 -16.565207914209481 65.459462284793773 36 36 36 0.43045694762233028 2 1240 11 1592 4 1108
2320 26.833952627883193 2.1246109947118081 61.026337412626788 153 153 153 1.1301860418965266 11 3503 3 1396 4 3194
2326 21.102734900913383 4.3978955639911232 58.600006671965467 150 150 150 0.47240440080979851 11 2664 3 1433 4 2680
2696 -3.6305854534103008 4.020197111593423 8.4208240521676725 181 181 181 0.13478784677364375 14 2932 3 3455
5774 -3.8856619166470692 5.195639153559835 7.728189742388011 174 174 174 0.20488072359828338 14 3422 7 2533 8 1656
2335 22.768956855832503 6.7129448806922731 59.442721196778905 105 105 105 0.76174712866880567 11 2046 3 1463 4 1917
6083 -3.1660557396578013 3.8384134331121653 8.3700859439547912 187 187 187 1.3411396034988399 14 2194 8 1174
2341 14.634731989524312 8.9266292271387861 57.771472047138502 13 13 13 0.69427352109277873 11 2096 3 1493 15 1168 5 1074 12 1174 2 998
4039 7.3713333529861131 -10.416107713223685 62.582026616069427 99 99 99 1.385826302296399 11 847 12 441 4 832
2342 16.680784219908482 8.8865522799248957 58.417161420303202 69 69 69 0.81108828309692627 11 2090 3 1495 15 1167 5 1073 12 1855 2 983 4 1933
3153 -1.7911935167406303 6.2309121074097531 11.152463430416063 188 188 188 0.058257301562243805 14 2420 15 2107
4032 10.093803626327873 -8.8281727974682553 45.557647208996961 180 180 180 0.1499725236032079 11 760 12 432
2346 12.891705069657389 10.670459684354521 56.777489652284672 107 107 107 0.63537983822094146 11 2490 3 1517 15 1460 5 1735 12 1830 2 1826
2349 -3.2404614650020318 2.1204534262931487 9.240483872490806 205 205 205 1.5701183861203654 11 3866 3 1523 4 3679 9 865
4047 11.258485300274444 -8.0963275358431961 62.584345444894197 170 170 170 0.70162302762473328 11 607 12 450 2 434 4 572
2351 15.681298571684557 11.261096235487075 58.429791820909003 127 127 127 1.4373161619413952 11 2769 3 1536 15 1477
5283 -2.6514684266775905 4.3181115513901513 8.4080156551836787 186 186 186 0.52833505576678053 3 1953 4 2205
5074 -1.1507390610393975 4.3130661151199376 8.8568463128682584 19 19 19 0.32807930987155276 5 2968 2 2856
2352 -5.8256873989910529 2.0849189689833154 8.6067888670921615 130 130 130 0.32041436816244001 3 1547 4 1732
4055 10.60885408084815 -4.2498605174770656 61.431948813608955 46 46 46 0.93175329770586346 11 783 12 463 2 447 4 589
2358 -4.0618617169003759 2.6540362963407715 7.828920233541619 188 188 188 0.078221815244539111 14 1879 3 1609
3233 -4.8939301776023978 1.9765183388177121 8.8618077180018808 250 250 250 1.4020846284312851 11 2508 15 2421 6 1744 13 1270 17 1158
4048 12.038249375160143 -8.1295579486579577 63.204796554474513 173 173 173 0.81289719318983011 11 608 12 451 2 332 4 573
5301 24.994914146859458 3.8942187578774825 60.276568629387775 147 147 147 0.54944996972849014 3 2178 11 2629 4 2643
2362 0.18550177050266384 3.6759208513615333 9.733584415949414 182 182 182 2.6801069780434097 14 2250 3 1645 8 1414
2363 19.397760675376563 20.783730523400052 55.095630019663432 123 123 123 0.66844510979937033 11 1580 3 1654 4 2031
2364 -4.1828368039272723 3.5189515389614452 8.3215897661282128 187 187 187 1.9583069498023018 14 2325 15 1917 18 1817
2365 -5.5123964767541622 3.4054479028112858 8.0180107571909449 123 123 123 0.47088263813595271 11 2092 3 1660 15 1916 12 2036 2 1933 7 1957 8 1142 16 1406 9 875 13 1025 17 731 10 587
4063 16.183880212293481 7.3292844684599121 58.374621307531783 59 59 59 0.58943651801744301 3 474 14 535 12 497 2 481
2366 -2.8977763527725569 3.6422797426332343 8.6626318786751852 188 188 188 0.85507333588547441 3 1661 12 2033 2 1864 17 1032 10 670
4056 12.796384521931705 -4.027797306580271 61.377152920046967 66 66 66 0.81648280589350297 11 632 12 464 2 448 4 592
2368 -3.0367873617212715 4.5525540665098649 8.3027211227924962 177 177 177 2.0738531670965785 11 2792 3 1709 2 1892
2369 -4.4897233753208816 4.411999941335961 7.888733727831454 174 174 174 2.5262678455517613 11 2790 3 1719 15 2099 16 1722 10 564
2371 -4.7054896646006528 5.2998985872794471 9.0031898776945152 182 182 182 0.052518883265113836 14 2249 3 1740
2372 -2.2905901258697683 3.8182708573297761 5.8966911662441888 174 174 174 0.99081587235918689 3 1744 5 922
2373 -4.2854210554532353 5.0351764811501525 7.6530767594040876 178 178 178 1.4165510668501566 14 2467 15 1734 13 731
2804 10.472061732212897 18.577184856741813 54.107588383054043 22 22 22 0.52609565547831849 18 455 15 450 5 413 12 394 2 364 7 449 8 333 16 364
2808 8.4604495885856146 4.3821908791860142 58.516297375807333 79 79 79 0.46886335557484565 14 508 15 473 5 350
2378 -5.1320375575042601 5.7515151244385585 7.1031846726721426 149 149 149 0.7690989831087085 14 2486 3 1759 15 2155 5 1494 11 2859 12 1913 2 1715 4 2042 7 1884 18 2155 8 1524 16 1601 6 1011 13 890 1 561 10 794
2380 -5.7084404925801966 5.7322312067239896 6.9478983469675217 162 162 162 1.1333883959571978 14 2490 3 1765 11 2864 12 2646 4 2045 18 1675 5 1493 7 1882 8 1673 8 1676 16 1599 2 1714
3327 -1.4749606010711214 4.4565778792150086 6.5854261724072591 167 167 167 0.68111899160830602 11 4109 15 2844
2381 5.2288941081311453 27.067423688758922 24.730920944552977 171 171 171 0.31419766104351365 14 1963 3 1788
2812 9.2086269386420252 7.7011950876904214 57.832138303743868 58 58 58 0.96913939792175896 14 534 15 482 3 472 5 508 12 503 2 489
2383 0.53967172495935167 24.533292846877725 25.156589140845679 145 145 145 0.65577074243501321 14 2529 3 1808
2593 25.341153035791898 4.0304172598532526 60.020292385858447 165 165 165 0.82946303323932025 11 2634 3 2841 4 3260
2385 6.8713641739577955 28.173335887538776 30.093715453514637 177 177 177 0.083601559529872096 14 1999 3 1830
2752 -2.2121649255680187 5.4605809906361502 11.170420890980564 194 194 194 0.74264780949524345 11 226 15 190
3110 10.525347668688463 22.244228932570053 53.032910972214012 141 141 141 0.5881888142709244 18 2281 15 1907 5 1984 12 2119
2388 -3.5269392129219228 5.6535021886405383 6.159617017566906 160 160 160 2.5774463355285828 11 4174 3 1848
2394 -2.5159032627990898 2.365994799622944 2.5911153077472306 169 169 169 0.23850145639989773 11 4216 3 1877
3627 -2.2986317566121408 6.6706464702141695 7.8485064294096221 94 94 94 0.41774011927070742 15 2323 5 2169 12 2139 2 1688
2396 13.840519193017778 29.672789824313728 33.89154279801047 156 156 156 0.7616410380378561 14 1978 3 1880 7 1795
5838 -2.3122116109120068 5.4300869321308189 9.2085963091350589 202 202 202 0.66034830841919323 5 3037 7 2763
2399 16.789149727429137 0.71572701369578395 59.012976051467554 144 144 144 0.42654224816833769 11 2502 3 1903 4 2547
3116 -5.2788499441504078 9.4938079547326666 26.445833466306944 201 201 201 0.60234502484562125 14 2301 15 1936
2704 -5.0850807833893459 2.3152416760357903 8.5810842468834334 171 171 171 0.82034675243898314 11 3532 3 3495 5 1924 7 1769 14 2860 16 1475 6 901 2 2380 13 1135 1 1282
2708 -2.6470620113239862 7.4150635912212266 10.907455711627032 158 158 158 0.98943252455507003 14 121 3 40
2409 0.10137569707685243 3.9668494482448149 9.408460301775337 167 167 167 0.66971852796768216 14 3019 3 1991 15 1915 5 1400 7 1966 8 1157 16 1404 6 789 12 2037 9 783 13 1020 1 488 17 1024 10 663
2712 1.0239305747525032 25.717939412127564 25.28249575009588 199 199 199 0.26516004679259675 14 1347 3 824
3231 -2.5827926445702709 2.2103724238678284 9.5707354135307803 237 237 237 2.3315251189199548 11 1946 15 2408
2415 -4.7809505225699871 3.7393830016761012 9.5076634953729986 187 187 187 0.30932483211945394 14 3525 12 2590
2417 -2.0472336163682683 3.2955529719019165 9.079921145982393 183 183 183 0.60473585528300478 14 2302 3 2019 12 1904 15 1559 9 816
2784 9.7930318421714642 10.759786788833116 57.031058469535509 144 144 144 1.0187585515272191 14 370 15 337 3 300 5 291 12 289 2 305
3810 -5.1951507603961238 3.3313488889512173 8.1431594537452501 109 109 109 0.20361572635020739 3 3082 5 2873 7 2714 18 2486
2420 -3.5509040299632715 2.9807512955171327 8.7614637825077182 191 191 191 1.7233895258456386 3 2036 2 3027 7 2141 6 892
2788 7.5565200820207554 32.954001054824928 48.93378095171424 86 86 86 0.74809114760023776 11 530 15 365 5 323 12 318 8 355 16 397
2425 -3.0399993529878455 2.4416130705884886 9.1527720129856718 188 188 188 1.9032954302380489 14 2906 3 2071 5 1323 4 3734 16 1965 6 906 2 3078 9 1000 8 2069 17 1523 11 3932 1 1307
2792 10.252144007501105 26.782323399387828 51.331130752952177 160 160 160 0.666963610708592 11 519 15 379 5 281 12 424 2 290 4 463 8 294 16 387
2426 -3.201153520538905 2.3993906181550151 9.1222298523604035 186 186 186 1.3943712793906475 11 2594 14 3312 3 2076 5 2664 8 2057
3311 -0.035557614267471879 4.7189682539127071 9.0141358687214073 189 189 189 1.0035858800517889 11 3695 15 2783 5 2039 6 811 1 439 10 1057 1 1151
2796 10.738213415328584 22.26557342665453 24.172025691873994 85 85 85 0.70987337260347716 14 1279 8 592
2431 -5.7545397788490229 2.1398367310390309 8.4525496699686418 162 162 162 0.93031381542109404 14 1796 3 2091 5 1147 12 1973 2 1502 4 1243 7 693
2577 -4.0980238851742588 2.8959404800657271 8.6548163874188013 171 171 171 1.8207315445114394 11 3508 3 2760 5 2387 7 2287 8 2478 14 3376 16 2062 6 1467
2434 14.442491728281317 11.140194514529053 56.88504220937935 109 109 109 0.8934746864933798 11 2772 3 2107 15 1484 12 1906 2 1871
3603 -2.9357647605199575 5.8252851864689532 10.975919789323799 197 197 197 1.6690779126125759 14 2397 5 2040
5136 -4.0935144328144171 2.0487322913989838 9.0315032921454339 217 217 217 0.66632404918618482 3 2756 5 1868 2 3129
2437 -3.4777146146537836 2.1112601503593815 9.1735447547131788 176 176 176 1.5835022453427383 14 2879 3 2117 5 2223 15 1874 12 1925 12 2750 11 3865 2 2183 6 929 4 2374 13 1256 1 1402 17 1361
2585 12.518147539994063 -0.22023824498391473 59.891337473658403 113 113 113 0.78434725882493095 11 3239 3 2818 12 2288 2 2078
2441 16.043343199471458 9.2552765665396581 58.661575600899297 40 40 40 0.37253174687876905 11 2740 3 2134 4 2734
3102 9.7561145458423209 18.626593445258916 53.891241068114248 44 44 44 0.4535147601898219 18 2014 15 1863 5 1376 12 1902 2 1723 7 1381 8 1016 16 1383
2444 25.766593856978478 4.3263979837181274 59.844871675676039 168 168 168 0.39474485024571299 11 2655 3 2159 4 2673
2589 1.1085290076693022 24.967781830259476 26.0825661183964 196 196 196 2.4274045023480668 14 3092 3 2834
5663 -1.1824028187657951 6.1090582543462517 9.2672441717497982 192 192 192 0.85157084857132292 5 2089 7 1915
2446 25.727408887258196 4.0780984396571229 59.700771998042313 170 170 170 0.19473660210273158 11 2640 3 2166 4 2657
2447 25.947315002508958 3.9415805634220789 60.766284606686199 147 147 147 1.3266031627363701 11 2632 3 2172 4 3251
2448 21.27038555735075 4.1354592373027277 59.332834451184567 148 148 148 0.69851119775908888 11 2643 3 2180 4 2660
2657 -2.3232442028943163 2.3268920853144355 9.4086700476162743 152 152 152 0.49516070885677088 14 3277 3 3303 8 2028 16 2253 6 1357 5 1881 9 1490 13 1266 17 1555
2449 20.516609343931801 4.2071366855738619 59.594464292398975 125 125 125 0.88031032844980783 11 2645 3 2181 4 2664
3174 12.358597979067024 30.495099592545884 38.170564711727856 164 164 164 0.19668945444703562 18 1776 15 2187
2450 19.306344463346935 4.3232376858063342 59.449581297716286 127 127 127 0.73333933179623545 11 2652 3 2182 4 2670
2451 27.023697383515824 3.505197954976762 60.272572213881027 149 149 149 0.49302535042219736 11 2623 3 2183 4 2630
2452 -2.9527181416299335 3.1300886033784661 4.8372236515339289 16 16 16 2.3384149511391032 11 2726 3 2187
5146 -4.2866545058881744 7.5526642505564894 23.561260080226873 186 186 186 2.2853828499907731 5 2599 2 3166
2453 20.655439030134072 3.9388761733997693 59.165026255586632 123 123 123 0.4011503664413405 11 2631 3 2191 4 2648
2669 -2.7529642910238064 2.177668533539534 9.4229174754101184 225 225 225 1.1368717984907821 11 3877 3 3346 15 2410 5 2249
2462 13.131503336997033 2.6345703054826295 59.678864593835435 138 138 138 1.3160319127629823 11 2583 3 2229 15 2039 5 1832 12 1921 2 1982
2465 10.470354406628406 2.5759189648987748 58.942940666748086 96 96 96 0.70453480647754085 11 2578 3 2242 15 2042 5 1829 12 1927 2 1979
5168 -5.4596846471694853 7.7067115548764527 23.194716452115308 22 22 22 2.2564577829056507 5 3243 2 3253
2467 10.213227787275494 2.4168310097595964 58.71507921718694 125 125 125 0.83491715454072912 11 2561 3 2252 15 2050 5 1821 2 1986
2468 24.675620233082928 0.8361346239007319 60.608722992003578 154 154 154 0.38142592250415785 11 2520 3 2257 4 2560
2469 9.8895212138319106 2.2383459361297002 58.658985748755342 95 95 95 0.54829447609335946 11 2551 3 2259 15 2056 12 2360
2772 9.0195174655860928 19.127269300714659 53.710059081459413 153 153 153 1.0405692594065259 18 273 15 293 5 227 12 242 2 198 7 248 8 209 16 180
2473 18.96882161197432 0.79274059052853563 60.602185750701139 156 156 156 1.0109213832254267 11 2513 3 2270 12 2332 4 2553
2776 7.3789128842947376 1.1449730562716753 58.638838400781914 79 79 79 0.69292018581080195 11 499 15 323 5 285 3 346 12 360 2 467
3134 14.743850457944855 9.1251171772535749 57.821057163216786 39 39 39 0.5893050448566145 11 2737 15 2020 3 2136 12 2021 2 1922
2474 17.668017240459733 0.78967892010224916 59.13311257353886 148 148 148 0.4414963695348606 11 2510 3 2271 4 2550
2621 -2.0436355256624807 4.3278083938092164 8.5946438787388413 20 20 20 0.3866676173756784 11 4085 12 2812 5 2022 9 1758
3295 -5.6259504107130516 1.928544925448674 8.5892580305364277 200 200 200 0.56627735427724923 18 2317 15 2718 8 2498
2478 15.556364305876714 0.53599531271795142 59.667168442131633 137 137 137 0.63117839185746516 11 3322 12 2321 3 2280 2 2043
2479 19.049310343661372 -0.073589043408352303 61.136944418738388 156 156 156 0.77827182483270008 11 3264 3 2287 12 2282 2 2111 4 2507
3132 9.7624934020088254 12.807732707200232 56.047029045036503 61 61 61 0.94581072163318358 14 2816 18 1347 15 2012 5 1897 12 2070 2 2265 16 1145
2480 -2.2355408484236881 3.6575582880289148 8.7731673583076333 184 184 184 0.46090920522863255 14 2327 8 1147
2482 17.772598487222485 -0.15996487671585527 60.544382590749102 145 145 145 0.75464683816885025 11 3253 3 2298 12 2274 2 2119 4 2497
2483 12.076691213054515 0.43219322606635441 60.152670812229196 131 131 131 1.6460335918307738 11 3455 3 2299 2 2028
2484 14.462535815821713 0.12598644425202576 59.912555530290888 130 130 130 0.74880081416134314 11 3447 3 2303 12 2416 2 2063
3595 -1.2378523309565213 4.3295119136945672 8.876930472481332 203 203 203 0.18721298818134205 14 3031 5 2013
2494 -3.1476611469034848 5.7675175842665327 7.7059217325559812 27 27 27 0.95278161241774262 11 3738 14 3435 3 2391 7 2560
3158 9.9560039740130364 27.579916618011726 50.756810259007906 125 125 125 0.61108148813412533 11 2932 15 2116 5 2051 12 2150 2 2313 4 2864 8 1410 16 1468
2498 -4.9547700304727433 5.8302153464474165 7.1275195602190182 157 157 157 0.74007566949084169 14 3077 3 2408 15 1954 5 2107 11 3745 12 2124 2 2280 4 4094 7 2387 18 2222 8 1678 16 1749 6 1221 9 1429 13 1329 1 743 10 795
3667 -1.6385081182076686 4.3785992025239446 11.354088849019728 16 16 16 0.032237251075532769 3 2769 5 2313
2645 18.137892459583352 17.225087086197547 56.688135716035077 101 101 101 0.30771212238640711 11 4115 3 3164 4 3371
2503 -3.3148793016015414 6.6313966551412289 6.6803099934455901 177 177 177 0.17132946656632431 3 2444 15 2327
3156 -2.3590867305066281 4.7990571126122088 8.3166857900985143 186 186 186 0.46460457287294421 18 2092 15 2110 10 561
2504 9.2263913861433497 21.239252900141693 20.874034953319434 80 80 80 1.6683574198120494 3 2445 7 1902
3886 -3.4405691812967234 7.3332862109747436 14.060408029434246 182 182 182 0.33131305688118495 3 2957 5 3219
3166 -3.9381514070028034 4.8129113258979546 7.8545835698608721 190 190 190 0.38999804481009354 14 2107 18 2106 15 2143
5727 -4.1991260411332902 4.1749291982878454 8.0284619766693037 195 195 195 1.9690101561583839 14 3216 7 2348 6 1738
4908 17.759328493968972 11.266179719848358 57.823936641614033 143 143 143 0.38873317184799089 3 2102 2 1907 14 2810
2510 13.718673910662826 11.11450524268891 57.051102756390648 113 113 113 0.81496933569467311 11 3672 3 2478 12 2048 15 2014 2 2455
3164 11.054835490220009 28.445432744791269 51.005159757386302 144 144 144 0.54146652946534402 11 2952 15 2139 5 2076 4 2886 8 1384 16 1444
3885 -4.192969966855661 4.2880250499087573 7.9931697499902992 180 180 180 0.86674486729961309 3 2859 5 3218 6 1184 9 1277
2512 -2.0419141620520365 2.3078463162034617 9.820929597609954 195 195 195 1.3057419096449647 14 2910 3 2491
3894 -0.45332412955820178 2.5112442269114097 9.8539283322750215 185 185 185 0.24556990070605789 15 2862 5 3260 8 1696 6 1789 9 1791 10 1046
4912 -4.6264836397881721 3.50230798876831 9.3623055948817804 209 209 209 0.39964223269940713 3 2018 2 1937
2516 -4.7477230137969739 2.1907492347878934 8.7445197132390682 151 151 151 0.37317488754945149 14 3278 3 2504 15 2684 5 2650 7 2240 8 1852 6 1623 9 1157
4907 13.168357874752424 -14.783064553564023 65.688401118454181 144 144 144 0.60372771763293587 11 2999 12 2179 2 1900 4 2943
2519 -2.8028753071317407 2.461322450382684 9.2048176640609309 189 189 189 0.91320083367169747 14 3323 3 2532 2 2067 5 1910 4 2450 7 2255 8 2071 6 908 12 2798 9 999 17 1188
3236 9.5799446860183046 29.50492809223714 34.427705006559933 154 154 154 0.50664688154764514 18 2201 15 2440 5 2131 8 1574 16 1627
3893 0.1558891655293001 3.364140088883731 9.712849380643144 199 199 199 1.4801231370859189 15 2352 5 3244 9 1757 16 1421
2520 -5.2080714590858568 2.3747774133156336 8.5190601966102815 87 87 87 0.38945994938476614 14 3337 3 2537 15 2651 18 2482 5 2569 7 2857 8 2123 16 2165 6 1718 9 1676 10 1093
3902 11.978932290547073 21.550009002832681 52.997789532487403 157 157 157 1.8894942671491539 11 334 14 277 5 244 18 253 15 233 12 244 2 184 7 283 8 204 16 217
2521 -5.0601881447448145 2.4768412170141563 8.5326274964140207 169 169 169 0.31975738820940031 14 3344 3 2547 15 2643 18 2469 5 2732 2 3055 7 2274 8 1882 16 1988 6 1856 9 1684
2527 -5.7537955317195744 2.8902435918094609 8.115288742336892 136 136 136 1.377782675753404 11 2697 3 2568 2 3008
3901 10.76900117706054 3.0562652425242565 59.098064476673088 79 79 79 0.52251887594695068 3 1384 15 1403 5 1681 12 1558 2 1584
2673 -5.7001155824756857 1.8816210667704494 8.5866543841880674 139 139 139 1.5110655252954712 14 3228 3 3379 15 2720 11 3847 5 2316 12 2753 8 1819 6 1072 1 1299
2529 -4.099279668747517 3.1492509835476632 8.5312074230451493 187 187 187 0.35064155279977188 14 2915 3 2577 5 2827 16 1792
3190 -4.3265367025456616 6.6613240848752717 15.917692808549869 192 192 192 0.51475338711436924 14 3175 15 2265
5232 26.361472261714475 10.056625782811164 58.394022164912677 113 113 113 0.28094425687559316 3 549 4 681 14 542
2531 -4.4223744315181746 3.170480217011403 8.4366732988874897 181 181 181 0.2649877463515834 14 3484 3 2580 12 2882 7 2755 8 2423 4 3811
2535 -4.4474162955640626 3.415824213778571 8.3186409008728202 191 191 191 2.461207768770417 14 3163 3 2595 5 2433 8 2386 6 1595
3188 -4.5147684210736569 3.4475272985372194 8.3877384707656653 193 193 193 0.98781113855273839 18 2055 15 2257 6 1138 13 1385
2536 -5.3402519538856943 3.3874580952031499 8.0769160975063468 176 176 176 0.36327847345553121 11 4039 14 2978 3 2602 15 2775 5 2442 12 2920 4 3306 7 2322 8 1945 16 2192 6 1612
2681 -0.5049795194223059 2.6790835954331129 9.7606752687770939 117 117 117 0.81025878173900578 14 3222 3 3411 5 1915 15 2460 7 2472 8 1738 2 2369 16 2016 6 922 9 1003 13 974 1 521 10 434
2537 -0.059160720883987022 3.9392219636427375 9.3674486695525783 162 162 162 0.92847942938933004 14 3178 3 2609 15 2841 5 2450 8 2352 16 2180 6 1146 9 1580 13 1389 1 1146
2538 -2.6611614893580042 3.7400593408322664 8.6606668985404927 193 193 193 0.53777716794082198 14 3180 3 2612 8 2347 1 1055
3707 1.255294752774647 23.133826886140007 40.743718264337403 199 199 199 0.68391143398163379 14 3113 5 2507
2540 -5.2256674034305686 3.6222156972233956 8.0079466679508737 177 177 177 0.45105013175957176 11 4048 14 3022 3 2620 15 2812 5 1991 12 2495 11 2752 2 2898 8 1613 16 1700 6 1156 9 1562 13 1157 1 1093 10 1161
2685 -0.88676857806945142 6.3383075812369798 8.1023534252885305 179 179 179 1.3504078275792473 11 4152 3 3424 8 1686 6 950 15 2848
5759 -4.0511836965399528 4.7369940711892804 7.8486744406581197 32 32 32 0.64965248660522601 2 3161 7 2492 8 2200 3 2214
2543 -1.0607525563763576 4.2820819430966974 8.9189443481533761 184 184 184 1.4948394525407853 14 3462 3 2639 8 2292 6 1934 2 2863 9 1708 1 841
2544 -4.4083498095162632 4.0278547484128806 8.0531230053477678 186 186 186 1.2794510061630315 11 4075 3 2642 8 2286 8 2288 7 2164 16 1802 4 3921 4 3918
2625 -1.0503814661538231 5.3920945008652419 8.4551845601305917 174 174 174 1.0079067189405506 14 3414 3 2985 10 959
2545 -3.4252714939968274 4.1724656831318585 8.2798285507383849 184 184 184 1.2212594195420465 11 4080 3 2645 16 1714 9 1233
3142 9.6879495443682035 2.0972407000063997 59.154299732852074 128 128 128 0.53817038918811888 14 2690 15 2060 12 2351 2 1999
2629 -5.3495693142377831 3.6430598928108346 7.9681871204672117 94 94 94 0.29502948969119841 11 4050 3 3021 5 2925
5242 19.637405648577499 20.711113406115516 55.026207095079378 41 41 41 0.41037252615012032 3 1095 4 863 14 1076
2549 -1.4016914995460665 4.5825009151720799 8.689740826978559 177 177 177 1.428583712904745 14 3368 3 2658 4 3972 6 972 2 1895 1 585
2551 -2.5652329952560864 4.5959938544069505 8.3351660104760796 174 174 174 0.45895373069951134 14 3380 3 2665 5 3004 2 2703 7 2832 1 1172
3140 9.4230928246416958 2.5200629635210059 59.066877743242664 106 106 106 0.68587619745314132 14 2701 15 2046 3 2251 5 1824 12 2425 2 1975
2633 -5.3510340588317895 3.3027525759573213 8.1083743147791978 86 86 86 0.26072169698570757 11 4031 14 3558 3 3085 15 2547 5 2870 2 2955 7 2716 6 1594 9 1798 10 1149
2556 -4.2402580587921843 5.1208567608488034 7.6117222475647139 164 164 164 0.64767680520706628 11 4125 8 2255
2637 -0.90133448274353467 5.4367849906956636 14.955089551987184 181 181 181 2.318361469818206 11 4239 3 3112
2559 -3.0432425229247126 1.8465827147844618 2.3797869021112552 117 117 117 2.2600120225990064 14 3555 3 2692
2560 -0.82700427009955202 6.1238384085036648 8.2353533818407296 190 190 190 1.6497402144513 11 4136 14 3437 3 2693 12 2641 2 2500 6 1412 9 1856 13 898 1 966
2563 -0.07302660572695327 6.4784485001553946 8.2801596747383908 171 171 171 1.8538405737060586 3 2696 11 3720 6 1247 5 3121 7 2381 17 1569 10 530 1 898 16 1580
2564 -0.34788914397799869 6.4780762754678518 8.2573134190032764 173 173 173 1.8337015088954534 3 2697 12 2552 6 843 1 1011
4023 16.356515201710383 12.486319051259269 56.404178017598653 157 157 157 1.3575105316482119 3 444 14 384 12 383
4017 17.357953182998614 -1.8057938858446634 61.573121795433352 15 15 15 0.48441779184092454 11 436 12 350 2 394 4 379
2570 -3.1943936255733321 6.5514619124035498 7.6854436136029074 36 36 36 0.029277821760217086 14 3530 3 2716
2571 4.488735822073914 27.562373595522832 29.151579853855747 161 161 161 1.3116522604857783 14 3134 3 2723 15 1630 5 1219
3514 -2.152006852204269 2.5837388575394251 4.3322523871268714 200 200 200 1.0860652182798591 3 2363 5 1467
2572 1.6643492952624723 25.373718917771058 26.578783257226338 197 197 197 2.3843112413080521 14 3496 3 2724
4031 11.320482395737688 -13.932950327879103 64.934969453119535 179 179 179 0.50592072270353849 11 579 12 431 2 415 4 542
6019 6.674960107481807 32.63175438346132 42.766298393909352 165 165 165 1.0227187197395264 15 1694 8 826 5 940 16 775
2576 -1.5332399060613997 2.3977021912258905 10.129299220541997 190 190 190 1.7504941181545957 14 3255 3 2754
2579 -2.798258625737239 3.2690375756809567 8.8717568585292348 172 172 172 0.80753666741116759 11 4013 3 2764 15 2354 5 3238 2 2406 8 1748 16 2229 6 1527
2580 -2.2732358974079312 3.8095651380724767 8.7773230930734893 23 23 23 1.9696577902021906 14 3181 3 2776 6 1151 5 2911
3975 9.1431635206938999 13.063921357611751 55.576430815449449 160 160 160 0.5333827689152062 5 241 15 244 12 223 2 179
2582 -3.8772706867873024 3.9525064768436566 8.2269683468818453 14 14 14 1.5876413953473441 14 3208 3 2782 12 2617 4 3912 7 2162 7 2484
3969 19.073510420647096 -4.3705774511052349 62.688600357864296 123 123 123 0.35083337889937766 11 267 12 201 2 208 4 239
2586 12.539381732453572 0.40454921204544625 58.951525591485918 109 109 109 0.79836163158690332 11 3453 3 2821 12 2320 2 2037
2587 12.341937491408403 0.49982769211194172 59.358884545829305 129 129 129 1.0448227066984872 11 2975 3 2823 12 2420
3466 11.089652308315646 10.874198483333618 56.480149360086116 109 109 109 1.1398140312283236 3 1525 5 1102
2588 28.969470387194161 -0.74101657723436887 62.104414079316399 174 174 174 0.56041213267323486 11 3231 3 2826 4 3100
3983 15.311434849609805 -4.554964426671301 62.38346022130834 173 173 173 0.76999456049295956 11 295 12 259 2 214 4 260
3977 9.7018679367810829 -13.050246239033566 63.640506794326285 119 119 119 0.48478853726067422 11 305 12 230 2 221 4 268
2591 25.221756052983121 2.7193325844215628 59.784047215236214 172 172 172 0.38984848116170512 11 2592 3 2836 4 2605
2592 28.697175155922114 3.387561267581281 60.625796884490434 156 156 156 0.43017839761896637 11 3554 3 2839 4 3231
2603 -3.2410951077351315 4.6063057528118971 8.1260925609974528 167 167 167 0.23086778631821148 11 3701 3 2898 5 2047 12 2933 2 2872 10 761
3418 -2.7664972916582866 6.9671688429902527 6.7381129265700128 11 11 11 0.65299218874146281 15 582 5 487 12 1618
4309 12.68677077401447 -7.2769146542229883 62.789938127344968 137 137 137 0.79437330275010098 11 1778 12 1373 2 1365 4 2299
2604 -2.9841550354452058 4.6374711812741953 8.1765119230078245 19 19 19 0.23040540846629204 11 3648 3 2899
4302 12.924325335386667 -8.270208432384111 63.29881728019128 135 135 135 0.79538549896963384 11 1769 12 1365 2 1358 4 2289
3272 -5.0535730749411947 2.8900487327918389 8.3961104275811387 186 186 186 0.80338195799740952 11 3986 15 2600 12 2862 10 658
2607 -3.1382028629874634 4.1100456137418684 8.3119957850326376 29 29 29 1.2814386464937397 11 3616 3 2903
2614 -2.5117864029623682 4.8196596608295215 8.2870754177480617 167 167 167 1.1011803608068187 11 4110 3 2920 8 2515
2618 -4.0594809656278752 4.7191744317496678 7.8431409875215321 174 174 174 0.45762741869548512 11 3706 3 2943 12 2953 2 2960
2619 -2.0113109201546862 4.9891146651955065 8.3284382755374526 169 169 169 2.3303642620546396 3 2948 2 3173 9 1402 13 1467
3498 -3.5178752966405735 2.9534928321498422 8.6877859950817928 200 200 200 0.79092817101795054 15 1944 5 1349 8 813
2620 -0.71114772989445763 6.4233491413622135 8.1263586331947977 176 176 176 0.52722692798137094 11 3757 1 1012 10 733
4015 12.59161890356499 -2.4000518688951842 60.916599280963311 39 39 39 0.84960506276507264 11 432 12 348 2 318 4 372
2622 -2.0211976773424403 5.0629581488748698 8.3199329330637894 21 21 21 1.1979026538396755 11 3665 3 2962 7 2490 6 1423
4009 14.042339827975137 -7.6314797373700465 62.565123377326074 177 177 177 0.64254283571544413 11 564 12 338 2 309 4 508
5550 8.6289317055705475 13.074408396192636 20.751726064300478 74 74 74 0.43347318002761948 18 675 7 942 16 509
2623 -1.3422698347351754 4.5465741555703216 8.8937528064697258 27 27 27 0.31903055106734662 14 3226 3 2966
4313 26.762054584840932 -7.3696539544235504 75.95604736787952 135 135 135 0.81970699366618782 12 1381 4 2331
2624 -2.177054535698292 5.1617674786401455 8.231785025108092 161 161 161 0.096964283897556403 14 3408 3 2976 1 866
2627 -3.7574904875132336 3.483430691101542 8.4828198742315877 184 184 184 0.93827771803194282 14 3165 3 3012 8 2379 16 2195 1 706
2628 -4.0925731618066878 3.7507050295709283 8.2542660712910134 183 183 183 1.1747079954301749 14 2904 3 3019 8 1960 16 2163
4087 11.004636252420136 20.83977421702788 53.468466799698369 163 163 163 0.37446227619294475 5 768 15 708 12 639 2 668 7 773 8 660
2630 -4.1105851313532451 3.7449616141660553 8.2750483597430282 22 22 22 1.0538031803846928 14 3192 3 3025 5 2923 2 2895 8 2328
4081 11.487552444579091 -14.991829490225694 65.381271730766102 104 104 104 0.30698640832208823 11 865 12 596 2 561 4 799
2634 -5.2114759100151451 3.2897658337411229 8.1582467188006618 87 87 87 0.2352113542227002 11 4026 3 3088 15 2549 5 2866 7 2650 8 2390 9 1793 13 1381 17 1465 10 1148
2635 -3.1773623657891172 1.6720613895979402 3.1404454222172027 177 177 177 2.4984254003048321 14 3489 3 3089
4089 12.913368358701764 -14.873942475913886 65.721883256166151 103 103 103 0.38300410563649212 11 784 12 662 2 562 4 801
2650 16.997625624497665 14.669349386519995 56.23847949780744 97 97 97 1.208745510530481 11 4099 3 3217 15 2448 5 2720 12 2863 4 3358 7 2443
3371 8.4803574085102067 27.347808048314722 27.465404519099437 218 218 218 1.8029392032074192 5 80 16 46
5582 -3.6667576960134527 3.2984575879825018 8.5821808084263971 12 12 12 0.066615800051232951 5 1386 7 1122
3474 -4.4849855167464252 7.9914268545256393 8.6853246538896602 168 168 168 0.24705643275330674 15 604 5 1175
3991 15.303330737001124 -3.198203056448798 61.453368550957393 118 118 118 0.67978159823392281 11 426 12 304 2 262 4 522
2662 -5.2599979941748556 2.1213893781927533 8.5902442040289824 189 189 189 2.2577415371113636 14 3271 3 3324
3985 12.904548868820735 -8.7583094640422594 64.131752627575565 142 142 142 0.53390321107071947 11 300 12 264 2 218
2667 -2.5613549293929916 2.1931943621698871 9.4744948702836442 221 221 221 0.88624260283400125 3 3344 6 1791 1 1343
3482 -3.696914192988658 7.0031348062179761 6.3941587935851212 0 0 0 0.21364431814155865 3 274 15 576
2671 -3.1998471622544087 2.1262242796935631 9.250365474752094 207 207 207 1.5874958731132676 11 3867 3 3354 10 1029
2675 -3.6124685014270632 5.2207597502798038 7.7838138043232741 168 168 168 1.3592098304347466 14 3565 3 3392 5 3073 8 2523 6 1588 8 2260 1 928
3554 9.2390455204308282 10.481711922211515 56.994050163027303 133 133 133 0.73490213960050477 14 2799 5 1845 3 2339 12 2042 2 2451
2676 -3.5647794560939041 4.3058931393353426 8.1706179479007197 186 186 186 1.8985814737743998 3 3397 2 3211 4 3955 7 2663 8 2173
4071 13.229026784215181 24.920386959235373 52.424286315764014 146 146 146 0.4914196684813163 5 460 15 530 12 541 2 514 8 381 16 466
2678 -3.1294755087075803 5.1896436301327755 7.5955854035896575 23 23 23 0.091013350027409526 14 3427 3 3399
4065 10.739928482174891 7.4141715944045412 57.471231887517348 112 112 112 0.27153909140630622 15 480 12 501 2 488
2683 -1.8722256596018836 4.5017919594089095 8.565655316199436 165 165 165 0.39097341096164823 11 4091 3 3416 5 2989 4 3966 16 2116
4079 0.17641429664546779 5.9492716508882904 8.5577049908279736 222 222 222 1.9257153451964537 12 581 2 683 6 1393 5 3087 13 1497 1 399 1 739
5614 6.0482257692014336 24.712120597743407 19.220555035950873 157 157 157 1.3449927532120132 18 1645 7 1618 8 1334 16 796
2687 -1.2258448063604204 6.3256474956330573 8.0099249012281017 210 210 210 0.017964824175941158 11 4154 3 3429
2689 -1.9160183809649567 4.2060328797620699 8.6774803666082541 191 191 191 1.569245667571429 11 4078 3 3434 1 1101
3862 -0.49903242710857743 2.5141827148905631 3.8434452614673722 16 16 16 0.71949914961277783 15 2380 5 3078
2690 -1.5163987208199199 6.3198722242499707 7.9705647819507028 185 185 185 0.88119835187066309 14 3076 3 3435 16 2048 9 1855
5904 22.673838862091213 29.020845231762955 52.038553876590328 132 132 132 0.73691607368192713 3 1155 11 1535 4 1026 7 921 18 939 14 1187
2691 -1.4270320625376127 6.3279739538463087 7.9666950497063045 121 121 121 0.8418390161826611 14 3453 3 3438 9 1446
2693 -1.9682224967715478 5.9698628522687978 7.4582831547278712 164 164 164 2.083181798130366 14 3459 3 3442
3355 -2.8499468559576151 2.267366105820682 5.6601752341081122 186 186 186 0.45551833585921286 14 3153 15 2557
2702 -3.4094112140985935 2.9506682131066051 8.7876886939417496 175 175 175 2.2272799094554268 14 3386 3 3485 5 3246 12 2848 2 2562 9 1723 1 1263
3942 16.624623209663518 22.115610787253591 53.951506238903278 166 166 166 0.28631131723601233 15 67 12 23
3427 12.993737197460925 30.3872522289956 36.207430968341413 199 199 199 1.9633516145429 3 667 14 869 5 560 8 611 18 974
2707 -3.1047097953655896 6.7810122345329216 6.6866684897024236 130 130 130 1.5505853772883715 14 54 3 34
3940 -3.374518582257926 5.4733024562129398 7.7365005128967947 191 191 191 1.2731602024186846 12 19 18 34 16 30 1 15 10 16
2713 18.434407472762061 -0.23861923314075179 60.792938582345862 119 119 119 1.1195484479886777 3 1300 12 1462 14 1553 2 1465 4 2495
3950 16.720123773371306 -5.5395324366201448 63.03268620862184 50 50 50 0.59956406557493003 11 177 12 87 2 90 4 165
2714 20.968602110009254 6.1876130431526235 50.370164588556463 128 128 128 1.1392077499690261 11 2699 3 1470
3435 -3.264010234435291 7.127377753026936 6.6743675858495299 15 15 15 2.1194901111839086 15 577 5 623 8 564 14 2036 16 696
2719 -2.9531313640093542 6.7697546792327215 6.414908454261723 50 50 50 0.16256558915502003 14 3544 3 2737
5936 8.479895015148033 14.206100039382035 20.602013221724381 187 187 187 3.1504881570031382 18 669 7 676
3538 10.334012622036743 4.3128643016282693 58.815958113247483 92 92 92 0.56997230239580643 3 1409 14 1644 5 1690 12 1590 2 1607
5439 -1.8470615144419096 5.4828140643128833 8.1871072716929199 15 15 15 2.034134888344787 4 4072 6 1377 3 3395 13 1482 5 3274
4057 19.177387871104099 -2.8598410250640773 62.709295433412635 125 125 125 0.26942382310138269 11 636 12 467 2 449 4 599
2737 -5.8372132929201443 2.5944143147391205 8.1414517838623333 135 135 135 1.6894870014496448 11 115 14 87 15 90 5 64 2 20 4 77
3846 -3.0645343784018007 7.5611340344884148 14.055559273845668 173 173 173 0.54768454391271582 3 3452 5 2999
2741 11.665079295414097 7.6007375421467414 57.968639723025078 95 95 95 0.68484819431406263 14 157 15 110 3 187 5 208 12 114 2 149
2743 9.2449149746704098 4.9417031857778451 58.56035475998182 132 132 132 0.74111472016219249 14 161 15 131 3 182 5 211 12 123 2 134
3844 -3.5204395408378866 4.3858931364024611 8.148857941655983 187 187 187 0.72461102791744458 3 2873 5 2992 12 2912 4 3069
2745 11.580883526459354 11.898462502238102 56.429741501312762 142 142 142 1.1683736457507663 14 153 15 137 5 109 12 99 2 155
3854 -2.3461954370684532 3.6764042757938173 5.9184260358676193 178 178 178 0.50910538825290552 3 2798 5 3044
2746 12.231617960167588 10.791546848395015 56.809532541846309 135 135 135 0.6149623441150821 14 236 15 140 5 144 12 102 2 151
3339 -1.9137387031472501 2.6460463707656086 9.3776583718297797 201 201 201 1.3502730576742845 15 15 5 8 12 7 16 13 17 9
2754 11.496528720007397 26.12311575435308 51.69232095224185 112 112 112 0.74222217574968952 11 246 15 193 5 247 12 180 2 187 4 220 8 213 16 221
5968 -6.3115416526094394 6.0973716846635337 7.0829049354686315 109 109 109 0.56915489128082486 15 260 8 169
5153 -2.2476816542960356 5.2448394060473014 9.3034908266595657 14 14 14 0.57220202695538447 3 2901 2 3187
2755 -5.6984583602828174 4.2720166925018361 7.596928993522547 212 212 212 0.83198162858032676 11 220 14 269 15 195 3 160 5 190 12 246 2 178 4 167 7 178 8 203 16 249 18 241 9 202 13 195 17 208 10 178
2756 -1.9819376928036552 4.5856694939895064 8.5178725687763777 191 191 191 0.47109709251636922 18 240 15 203 5 203 12 226
2757 -2.6443707687121454 4.8191705014215671 8.2361187900832373 182 182 182 0.71804776462097664 14 210 15 206 5 173 12 169 16 192 17 206
2759 -3.9002237244172537 5.0108338589991632 7.7801282781429926 182 182 182 0.66319299595040992 14 216 15 212 5 169 11 230 7 209
3109 10.69053254989266 22.252990267877035 53.021509327261043 122 122 122 0.92544913552468955 18 2003 15 1906 5 1985 12 2120 2 2282 7 2115 4 2814 8 1458 16 1614
2761 10.117220638251711 29.166565659674461 30.752787514546377 214 214 214 2.2089169652898368 18 296 15 226 5 224 16 211 8 186
3934 -2.4692973665021341 2.2012701216610133 9.4734649723877933 235 235 235 1.0577172737584937 15 2741 5 3265 9 1507
2766 -1.6831816567001183 3.3962967715918908 9.1544012503369743 201 201 201 0.43608946329741588 11 285 15 252 5 154
4140 23.209843157811079 -9.6590902465206803 68.893436674869491 38 38 38 1.7376754689319218 11 821 12 825 2 813 4 858
2767 -3.8695252003289999 4.925062680431453 10.924844906787499 202 202 202 0.17382145858764447 14 254 5 182
3932 -4.0040940634057289 4.7430145810094748 7.8600364147127424 189 189 189 1.1533436005547708 11 3711 15 2816 5 3035 14 3529
2770 12.275545177226199 27.973597901906402 51.480633026829921 131 131 131 0.7248556508866898 11 320 15 283 5 262 12 239 2 240 8 256 16 332
4144 16.106355212018837 -10.320914496673684 64.845344367384854 180 180 180 0.45204831062965689 11 837 12 831 2 807 4 837
2771 8.8930709036034123 29.546172613498698 33.908362993286154 201 201 201 0.85398144515250096 14 304 15 288 3 269 5 273 16 205
2773 10.126057958131129 12.51324350430693 56.461977842897255 13 13 13 0.61978848428294131 14 285 15 300 5 256 12 248 2 231
4139 21.972399135260979 -8.7486221840983873 67.808922263500108 151 151 151 1.3970824895344354 11 816 12 823 4 867
2775 12.540820708501327 22.054537148899225 54.788213516231586 161 161 161 1.4560180644838894 18 360 15 317 8 280
3125 -2.518099794248593 2.21672661523702 8.8975270854869191 189 189 189 0.33414932536304609 18 2530 15 1991
4004 22.042275372108314 -11.851524958513521 69.054354266744724 142 142 142 2.2058905159156006 11 557 12 331 2 279 4 501
2777 9.9795988986621129 11.352667157418455 56.567762065654911 147 147 147 1.0412314079058083 14 382 15 325 5 292 3 436 12 381 2 303
4014 10.429211832549802 -2.5773345781343995 60.896480075613951 34 34 34 0.69018419935569808 11 430 12 347 2 317 4 598
4159 -3.1513554915135855 7.5730866399285492 6.1373743654918282 18 18 18 0.7642466756151034 15 1084 12 866 8 969
2782 10.135896894071832 13.434525082478062 55.832870779282295 35 35 35 0.64424383648831673 18 344 15 335 5 280 12 288 2 302 16 314
2783 15.279418655027557 12.713924073318537 57.749956553835212 156 156 156 1.2608498606171861 14 369 15 336 5 298
3133 9.2070008579644487 10.795286547987184 56.696079540355626 135 135 135 0.95987812132248884 14 2800 15 2017 3 2121 5 1846 12 2049 2 1903
4012 17.291073535319711 -2.8455239523022153 61.775872445893469 36 36 36 0.47632210469493297 11 428 12 344 2 315 4 526
2785 8.87048371681046 3.9652118319165139 58.362959996003617 133 133 133 0.46260814886826396 14 313 15 338 3 309 5 290
3958 -1.8981144981917404 3.9655447433668929 7.6416345949110243 0 0 0 0.48700228219705022 5 85 18 208
2789 9.6335742874070363 2.0707441056727567 59.095906980556457 125 125 125 0.41275627738237725 14 316 15 367 3 312 5 287 12 296 2 255
2791 8.8007463630782237 26.669652231880459 51.195098573897774 171 171 171 0.95795439719595832 11 520 15 378 5 318 12 319 2 386 4 464 8 370 16 385
3956 12.976080042161582 -12.746672654357628 65.030093771151783 131 131 131 0.50403324142594197 11 251 12 131 2 164 4 225
2793 10.949052420994692 27.297883421067681 51.192460290736435 160 160 160 0.42368502756433113 11 523 15 380 5 409 12 419 2 387 4 466 8 348 16 388
3966 -2.4164692968661043 7.7264115726635954 6.2802316861428586 16 16 16 0.67924051536000107 11 250 12 190
2794 6.6450418908843387 33.872559581542539 47.510699000269376 71 71 71 0.98144176093180313 15 385 5 473 12 851 8 404 16 496
